0.027500 0.047500 0.042500 100.000000 -0.000000 -0.000000
0.027500 0.052500 0.042500 100.000000 0.000000 -0.000000
0.027500 0.042500 0.047500 100.000000 -0.000000 -0.000000
0.027500 0.047500 0.047500 100.000000 0.000000 0.000000
0.027500 0.052500 0.047500 100.000000 0.000000 0.000000
0.027500 0.057500 0.047500 100.000000 0.000000 0.000000
0.027500 0.042500 0.052500 100.000000 0.000000 -0.000000
0.027500 0.047500 0.052500 100.000000 0.000000 0.000000
0.027500 0.052500 0.052500 100.000000 0.000000 -0.000000
0.027500 0.057500 0.052500 100.000000 0.000000 0.000000
0.027500 0.047500 0.057500 100.000000 0.000000 -0.000000
0.027500 0.052500 0.057500 100.000000 0.000000 0.000000
0.032500 0.042500 0.037500 100.000000 0.000000 0.000000
0.032500 0.047500 0.037500 100.000000 0.000000 100.000000
0.032500 0.052500 0.037500 100.000000 -0.000000 100.000000
0.032500 0.057500 0.037500 100.000000 0.000000 0.000000
0.032500 0.037500 0.042500 100.000000 -0.000000 0.000000
0.032500 0.042500 0.042500 100.000000 100.000000 100.000000
0.032500 0.047500 0.042500 100.000000 100.000000 100.000000
0.032500 0.052500 0.042500 100.000000 -100.000000 100.000000
0.032500 0.057500 0.042500 100.000000 -100.000000 100.000000
0.032500 0.062500 0.042500 100.000000 0.000000 -0.000000
0.032500 0.037500 0.047500 100.000000 100.000000 -0.000000
0.032500 0.042500 0.047500 100.000000 100.000000 100.000000
0.032500 0.047500 0.047500 100.000000 0.000000 -0.000000
0.032500 0.052500 0.047500 100.000000 0.000000 0.000000
0.032500 0.057500 0.047500 100.000000 -100.000000 100.000000
0.032500 0.062500 0.047500 100.000000 -100.000000 0.000000
0.032500 0.037500 0.052500 100.000000 100.000000 0.000000
0.032500 0.042500 0.052500 100.000000 100.000000 -100.000000
0.032500 0.047500 0.052500 100.000000 0.000000 0.000000
0.032500 0.052500 0.052500 100.000000 0.000000 0.000000
0.032500 0.057500 0.052500 100.000000 -100.000000 -100.000000
0.032500 0.062500 0.052500 100.000000 -100.000000 0.000000
0.032500 0.037500 0.057500 100.000000 -0.000000 -0.000000
0.032500 0.042500 0.057500 100.000000 100.000000 -100.000000
0.032500 0.047500 0.057500 100.000000 100.000000 -100.000000
0.032500 0.052500 0.057500 100.000000 -100.000000 -100.000000
0.032500 0.057500 0.057500 100.000000 -100.000000 -100.000000
0.032500 0.062500 0.057500 100.000000 0.000000 -0.000000
0.032500 0.042500 0.062500 100.000000 -0.000000 -0.000000
0.032500 0.047500 0.062500 100.000000 -0.000000 -100.000000
0.032500 0.052500 0.062500 100.000000 -0.000000 -100.000000
0.032500 0.057500 0.062500 100.000000 -0.000000 -0.000000
0.037500 0.042500 0.032500 -0.000000 0.000000 100.000000
0.037500 0.047500 0.032500 100.000000 -0.000000 100.000000
0.037500 0.052500 0.032500 100.000000 0.000000 100.000000
0.037500 0.057500 0.032500 0.000000 0.000000 100.000000
0.037500 0.037500 0.037500 100.000000 100.000000 100.000000
0.037500 0.042500 0.037500 100.000000 100.000000 100.000000
0.037500 0.047500 0.037500 100.000000 -0.000000 100.000000
0.037500 0.052500 0.037500 100.000000 0.000000 100.000000
0.037500 0.057500 0.037500 100.000000 -100.000000 100.000000
0.037500 0.062500 0.037500 100.000000 -100.000000 100.000000
0.037500 0.032500 0.042500 -0.000000 100.000000 -0.000000
0.037500 0.037500 0.042500 100.000000 100.000000 100.000000
0.037500 0.042500 0.042500 100.000000 0.000000 0.000000
0.037500 0.057500 0.042500 100.000000 0.000000 -0.000000
0.037500 0.062500 0.042500 100.000000 -100.000000 100.000000
0.037500 0.067500 0.042500 -0.000000 -100.000000 -0.000000
0.037500 0.032500 0.047500 100.000000 100.000000 -0.000000
0.037500 0.037500 0.047500 100.000000 100.000000 -0.000000
0.037500 0.062500 0.047500 100.000000 -100.000000 0.000000
0.037500 0.067500 0.047500 100.000000 -100.000000 0.000000
0.037500 0.032500 0.052500 100.000000 100.000000 0.000000
0.037500 0.037500 0.052500 100.000000 100.000000 0.000000
0.037500 0.062500 0.052500 100.000000 -100.000000 0.000000
0.037500 0.067500 0.052500 100.000000 -100.000000 -0.000000
0.037500 0.032500 0.057500 -0.000000 100.000000 0.000000
0.037500 0.037500 0.057500 100.000000 100.000000 -100.000000
0.037500 0.042500 0.057500 100.000000 0.000000 0.000000
0.037500 0.057500 0.057500 100.000000 0.000000 0.000000
0.037500 0.062500 0.057500 100.000000 -100.000000 -100.000000
0.037500 0.067500 0.057500 -0.000000 -100.000000 0.000000
0.037500 0.037500 0.062500 100.000000 100.000000 -100.000000
0.037500 0.042500 0.062500 100.000000 100.000000 -100.000000
0.037500 0.047500 0.062500 100.000000 -0.000000 -100.000000
0.037500 0.052500 0.062500 100.000000 -0.000000 -100.000000
0.037500 0.057500 0.062500 100.000000 -100.000000 -100.000000
0.037500 0.062500 0.062500 100.000000 -100.000000 -100.000000
0.037500 0.042500 0.067500 -0.000000 0.000000 -100.000000
0.037500 0.047500 0.067500 100.000000 -0.000000 -100.000000
0.037500 0.052500 0.067500 100.000000 0.000000 -100.000000
0.037500 0.057500 0.067500 -0.000000 0.000000 -100.000000
0.042500 0.047500 0.027500 0.000000 0.000000 100.000000
0.042500 0.052500 0.027500 0.000000 -0.000000 100.000000
0.042500 0.037500 0.032500 -0.000000 -0.000000 100.000000
0.042500 0.042500 0.032500 100.000000 100.000000 100.000000
0.042500 0.047500 0.032500 100.000000 100.000000 100.000000
0.042500 0.052500 0.032500 100.000000 -100.000000 100.000000
0.042500 0.057500 0.032500 100.000000 -100.000000 100.000000
0.042500 0.062500 0.032500 -0.000000 0.000000 100.000000
0.042500 0.032500 0.037500 0.000000 100.000000 -0.000000
0.042500 0.037500 0.037500 100.000000 100.000000 100.000000
0.042500 0.042500 0.037500 -0.000000 0.000000 100.000000
0.042500 0.057500 0.037500 -0.000000 0.000000 100.000000
0.042500 0.062500 0.037500 100.000000 -100.000000 100.000000
0.042500 0.067500 0.037500 0.000000 -100.000000 -0.000000
0.042500 0.032500 0.042500 100.000000 100.000000 100.000000
0.042500 0.037500 0.042500 0.000000 100.000000 0.000000
0.042500 0.062500 0.042500 0.000000 -100.000000 0.000000
0.042500 0.067500 0.042500 100.000000 -100.000000 100.000000
0.042500 0.027500 0.047500 0.000000 100.000000 0.000000
0.042500 0.032500 0.047500 100.000000 100.000000 100.000000
0.042500 0.067500 0.047500 100.000000 -100.000000 100.000000
0.042500 0.072500 0.047500 -0.000000 -100.000000 -0.000000
0.042500 0.027500 0.052500 -0.000000 100.000000 -0.000000
0.042500 0.032500 0.052500 100.000000 100.000000 -100.000000
0.042500 0.067500 0.052500 100.000000 -100.000000 -100.000000
0.042500 0.072500 0.052500 0.000000 -100.000000 0.000000
0.042500 0.032500 0.057500 100.000000 100.000000 -100.000000
0.042500 0.037500 0.057500 -0.000000 100.000000 0.000000
0.042500 0.062500 0.057500 0.000000 -100.000000 0.000000
0.042500 0.067500 0.057500 100.000000 -100.000000 -100.000000
0.042500 0.032500 0.062500 0.000000 100.000000 0.000000
0.042500 0.037500 0.062500 100.000000 100.000000 -100.000000
0.042500 0.042500 0.062500 0.000000 0.000000 -100.000000
0.042500 0.057500 0.062500 -0.000000 0.000000 -100.000000
0.042500 0.062500 0.062500 100.000000 -100.000000 -100.000000
0.042500 0.067500 0.062500 -0.000000 -100.000000 0.000000
0.042500 0.037500 0.067500 0.000000 -0.000000 -100.000000
0.042500 0.042500 0.067500 100.000000 100.000000 -100.000000
0.042500 0.047500 0.067500 100.000000 100.000000 -100.000000
0.042500 0.052500 0.067500 100.000000 -100.000000 -100.000000
0.042500 0.057500 0.067500 100.000000 -100.000000 -100.000000
0.042500 0.062500 0.067500 -0.000000 0.000000 -100.000000
0.042500 0.047500 0.072500 -0.000000 -0.000000 -100.000000
0.042500 0.052500 0.072500 -0.000000 0.000000 -100.000000
0.047500 0.042500 0.027500 0.000000 0.000000 100.000000
0.047500 0.047500 0.027500 0.000000 -0.000000 100.000000
0.047500 0.052500 0.027500 0.000000 0.000000 100.000000
0.047500 0.057500 0.027500 0.000000 -0.000000 100.000000
0.047500 0.037500 0.032500 0.000000 100.000000 100.000000
0.047500 0.042500 0.032500 100.000000 100.000000 100.000000
0.047500 0.047500 0.032500 0.000000 -0.000000 100.000000
0.047500 0.052500 0.032500 0.000000 0.000000 100.000000
0.047500 0.057500 0.032500 100.000000 -100.000000 100.000000
0.047500 0.062500 0.032500 0.000000 -100.000000 100.000000
0.047500 0.032500 0.037500 0.000000 100.000000 100.000000
0.047500 0.037500 0.037500 0.000000 100.000000 100.000000
0.047500 0.062500 0.037500 0.000000 -100.000000 100.000000
0.047500 0.067500 0.037500 -0.000000 -100.000000 100.000000
0.047500 0.027500 0.042500 0.000000 100.000000 0.000000
0.047500 0.032500 0.042500 100.000000 100.000000 100.000000
0.047500 0.067500 0.042500 100.000000 -100.000000 100.000000
0.047500 0.072500 0.042500 0.000000 -100.000000 0.000000
0.047500 0.027500 0.047500 -0.000000 100.000000 -0.000000
0.047500 0.032500 0.047500 0.000000 100.000000 0.000000
0.047500 0.067500 0.047500 0.000000 -100.000000 0.000000
0.047500 0.072500 0.047500 0.000000 -100.000000 -0.000000
0.047500 0.027500 0.052500 0.000000 100.000000 0.000000
0.047500 0.032500 0.052500 0.000000 100.000000 0.000000
0.047500 0.067500 0.052500 -0.000000 -100.000000 0.000000
0.047500 0.072500 0.052500 -0.000000 -100.000000 0.000000
0.047500 0.027500 0.057500 -0.000000 100.000000 0.000000
0.047500 0.032500 0.057500 100.000000 100.000000 -100.000000
0.047500 0.067500 0.057500 100.000000 -100.000000 -100.000000
0.047500 0.072500 0.057500 -0.000000 -100.000000 -0.000000
0.047500 0.032500 0.062500 0.000000 100.000000 -100.000000
0.047500 0.037500 0.062500 -0.000000 100.000000 -100.000000
0.047500 0.062500 0.062500 -0.000000 -100.000000 -100.000000
0.047500 0.067500 0.062500 0.000000 -100.000000 -100.000000
0.047500 0.037500 0.067500 -0.000000 100.000000 -100.000000
0.047500 0.042500 0.067500 100.000000 100.000000 -100.000000
0.047500 0.047500 0.067500 0.000000 -0.000000 -100.000000
0.047500 0.052500 0.067500 0.000000 0.000000 -100.000000
0.047500 0.057500 0.067500 100.000000 -100.000000 -100.000000
0.047500 0.062500 0.067500 0.000000 -100.000000 -100.000000
0.047500 0.042500 0.072500 0.000000 -0.000000 -100.000000
0.047500 0.047500 0.072500 0.000000 -0.000000 -100.000000
0.047500 0.052500 0.072500 0.000000 0.000000 -100.000000
0.047500 0.057500 0.072500 0.000000 0.000000 -100.000000
0.052500 0.042500 0.027500 -0.000000 -0.000000 100.000000
0.052500 0.047500 0.027500 -0.000000 -0.000000 100.000000
0.052500 0.052500 0.027500 -0.000000 -0.000000 100.000000
0.052500 0.057500 0.027500 -0.000000 -0.000000 100.000000
0.052500 0.037500 0.032500 -0.000000 100.000000 100.000000
0.052500 0.042500 0.032500 -100.000000 100.000000 100.000000
0.052500 0.047500 0.032500 -0.000000 -0.000000 100.000000
0.052500 0.052500 0.032500 -0.000000 0.000000 100.000000
0.052500 0.057500 0.032500 -100.000000 -100.000000 100.000000
0.052500 0.062500 0.032500 -0.000000 -100.000000 100.000000
0.052500 0.032500 0.037500 -0.000000 100.000000 100.000000
0.052500 0.037500 0.037500 -0.000000 100.000000 100.000000
0.052500 0.062500 0.037500 -0.000000 -100.000000 100.000000
0.052500 0.067500 0.037500 -0.000000 -100.000000 100.000000
0.052500 0.027500 0.042500 -0.000000 100.000000 0.000000
0.052500 0.032500 0.042500 -100.000000 100.000000 100.000000
0.052500 0.067500 0.042500 -100.000000 -100.000000 100.000000
0.052500 0.072500 0.042500 0.000000 -100.000000 -0.000000
0.052500 0.027500 0.047500 0.000000 100.000000 -0.000000
0.052500 0.032500 0.047500 -0.000000 100.000000 0.000000
0.052500 0.067500 0.047500 0.000000 -100.000000 0.000000
0.052500 0.072500 0.047500 0.000000 -100.000000 0.000000
0.052500 0.027500 0.052500 0.000000 100.000000 0.000000
0.052500 0.032500 0.052500 -0.000000 100.000000 0.000000
0.052500 0.067500 0.052500 0.000000 -100.000000 0.000000
0.052500 0.072500 0.052500 -0.000000 -100.000000 0.000000
0.052500 0.027500 0.057500 0.000000 100.000000 -0.000000
0.052500 0.032500 0.057500 -100.000000 100.000000 -100.000000
0.052500 0.067500 0.057500 -100.000000 -100.000000 -100.000000
0.052500 0.072500 0.057500 0.000000 -100.000000 -0.000000
0.052500 0.032500 0.062500 0.000000 100.000000 -100.000000
0.052500 0.037500 0.062500 0.000000 100.000000 -100.000000
0.052500 0.062500 0.062500 -0.000000 -100.000000 -100.000000
0.052500 0.067500 0.062500 0.000000 -100.000000 -100.000000
0.052500 0.037500 0.067500 0.000000 100.000000 -100.000000
0.052500 0.042500 0.067500 -100.000000 100.000000 -100.000000
0.052500 0.047500 0.067500 -0.000000 -0.000000 -100.000000
0.052500 0.052500 0.067500 -0.000000 0.000000 -100.000000
0.052500 0.057500 0.067500 -100.000000 -100.000000 -100.000000
0.052500 0.062500 0.067500 -0.000000 -100.000000 -100.000000
0.052500 0.042500 0.072500 -0.000000 -0.000000 -100.000000
0.052500 0.047500 0.072500 -0.000000 0.000000 -100.000000
0.052500 0.052500 0.072500 -0.000000 0.000000 -100.000000
0.052500 0.057500 0.072500 0.000000 -0.000000 -100.000000
0.057500 0.047500 0.027500 -0.000000 -0.000000 100.000000
0.057500 0.052500 0.027500 -0.000000 0.000000 100.000000
0.057500 0.037500 0.032500 0.000000 -0.000000 100.000000
0.057500 0.042500 0.032500 -100.000000 100.000000 100.000000
0.057500 0.047500 0.032500 -100.000000 100.000000 100.000000
0.057500 0.052500 0.032500 -100.000000 -100.000000 100.000000
0.057500 0.057500 0.032500 -100.000000 -100.000000 100.000000
0.057500 0.062500 0.032500 0.000000 0.000000 100.000000
0.057500 0.032500 0.037500 -0.000000 100.000000 -0.000000
0.057500 0.037500 0.037500 -100.000000 100.000000 100.000000
0.057500 0.042500 0.037500 0.000000 0.000000 100.000000
0.057500 0.057500 0.037500 0.000000 0.000000 100.000000
0.057500 0.062500 0.037500 -100.000000 -100.000000 100.000000
0.057500 0.067500 0.037500 0.000000 -100.000000 -0.000000
0.057500 0.032500 0.042500 -100.000000 100.000000 100.000000
0.057500 0.037500 0.042500 -0.000000 100.000000 0.000000
0.057500 0.062500 0.042500 -0.000000 -100.000000 0.000000
0.057500 0.067500 0.042500 -100.000000 -100.000000 100.000000
0.057500 0.027500 0.047500 -0.000000 100.000000 0.000000
0.057500 0.032500 0.047500 -100.000000 100.000000 100.000000
0.057500 0.067500 0.047500 -100.000000 -100.000000 100.000000
0.057500 0.072500 0.047500 -0.000000 -100.000000 0.000000
0.057500 0.027500 0.052500 -0.000000 100.000000 -0.000000
0.057500 0.032500 0.052500 -100.000000 100.000000 -100.000000
0.057500 0.067500 0.052500 -100.000000 -100.000000 -100.000000
0.057500 0.072500 0.052500 -0.000000 -100.000000 -0.000000
0.057500 0.032500 0.057500 -100.000000 100.000000 -100.000000
0.057500 0.037500 0.057500 0.000000 100.000000 0.000000
0.057500 0.062500 0.057500 0.000000 -100.000000 0.000000
0.057500 0.067500 0.057500 -100.000000 -100.000000 -100.000000
0.057500 0.032500 0.062500 -0.000000 100.000000 0.000000
0.057500 0.037500 0.062500 -100.000000 100.000000 -100.000000
0.057500 0.042500 0.062500 0.000000 0.000000 -100.000000
0.057500 0.057500 0.062500 0.000000 0.000000 -100.000000
0.057500 0.062500 0.062500 -100.000000 -100.000000 -100.000000
0.057500 0.067500 0.062500 -0.000000 -100.000000 0.000000
0.057500 0.037500 0.067500 0.000000 -0.000000 -100.000000
0.057500 0.042500 0.067500 -100.000000 100.000000 -100.000000
0.057500 0.047500 0.067500 -100.000000 100.000000 -100.000000
0.057500 0.052500 0.067500 -100.000000 -100.000000 -100.000000
0.057500 0.057500 0.067500 -100.000000 -100.000000 -100.000000
0.057500 0.062500 0.067500 0.000000 0.000000 -100.000000
0.057500 0.047500 0.072500 0.000000 0.000000 -100.000000
0.057500 0.052500 0.072500 0.000000 0.000000 -100.000000
0.062500 0.042500 0.032500 0.000000 -0.000000 100.000000
0.062500 0.047500 0.032500 -100.000000 -0.000000 100.000000
0.062500 0.052500 0.032500 -100.000000 -0.000000 100.000000
0.062500 0.057500 0.032500 0.000000 0.000000 100.000000
0.062500 0.037500 0.037500 -100.000000 100.000000 100.000000
0.062500 0.042500 0.037500 -100.000000 100.000000 100.000000
0.062500 0.047500 0.037500 -100.000000 0.000000 100.000000
0.062500 0.052500 0.037500 -100.000000 -0.000000 100.000000
0.062500 0.057500 0.037500 -100.000000 -100.000000 100.000000
0.062500 0.062500 0.037500 -100.000000 -100.000000 100.000000
0.062500 0.032500 0.042500 0.000000 100.000000 0.000000
0.062500 0.037500 0.042500 -100.000000 100.000000 100.000000
0.062500 0.042500 0.042500 -100.000000 0.000000 -0.000000
0.062500 0.057500 0.042500 -100.000000 0.000000 -0.000000
0.062500 0.062500 0.042500 -100.000000 -100.000000 100.000000
0.062500 0.067500 0.042500 0.000000 -100.000000 0.000000
0.062500 0.032500 0.047500 -100.000000 100.000000 0.000000
0.062500 0.037500 0.047500 -100.000000 100.000000 0.000000
0.062500 0.062500 0.047500 -100.000000 -100.000000 0.000000
0.062500 0.067500 0.047500 -100.000000 -100.000000 -0.000000
0.062500 0.032500 0.052500 -100.000000 100.000000 -0.000000
0.062500 0.037500 0.052500 -100.000000 100.000000 0.000000
0.062500 0.062500 0.052500 -100.000000 -100.000000 0.000000
0.062500 0.067500 0.052500 -100.000000 -100.000000 -0.000000
0.062500 0.032500 0.057500 0.000000 100.000000 0.000000
0.062500 0.037500 0.057500 -100.000000 100.000000 -100.000000
0.062500 0.042500 0.057500 -100.000000 0.000000 0.000000
0.062500 0.057500 0.057500 -100.000000 0.000000 0.000000
0.062500 0.062500 0.057500 -100.000000 -100.000000 -100.000000
0.062500 0.067500 0.057500 0.000000 -100.000000 -0.000000
0.062500 0.037500 0.062500 -100.000000 100.000000 -100.000000
0.062500 0.042500 0.062500 -100.000000 100.000000 -100.000000
0.062500 0.047500 0.062500 -100.000000 0.000000 -100.000000
0.062500 0.052500 0.062500 -100.000000 0.000000 -100.000000
0.062500 0.057500 0.062500 -100.000000 -100.000000 -100.000000
0.062500 0.062500 0.062500 -100.000000 -100.000000 -100.000000
0.062500 0.042500 0.067500 0.000000 0.000000 -100.000000
0.062500 0.047500 0.067500 -100.000000 0.000000 -100.000000
0.062500 0.052500 0.067500 -100.000000 0.000000 -100.000000
0.062500 0.057500 0.067500 0.000000 -0.000000 -100.000000
0.067500 0.042500 0.037500 -100.000000 0.000000 -0.000000
0.067500 0.047500 0.037500 -100.000000 0.000000 100.000000
0.067500 0.052500 0.037500 -100.000000 -0.000000 100.000000
0.067500 0.057500 0.037500 -100.000000 0.000000 -0.000000
0.067500 0.037500 0.042500 -100.000000 -0.000000 -0.000000
0.067500 0.042500 0.042500 -100.000000 100.000000 100.000000
0.067500 0.047500 0.042500 -100.000000 100.000000 100.000000
0.067500 0.052500 0.042500 -100.000000 -100.000000 100.000000
0.067500 0.057500 0.042500 -100.000000 -100.000000 100.000000
0.067500 0.062500 0.042500 -100.000000 0.000000 -0.000000
0.067500 0.037500 0.047500 -100.000000 100.000000 0.000000
0.067500 0.042500 0.047500 -100.000000 100.000000 100.000000
0.067500 0.047500 0.047500 -100.000000 -0.000000 -0.000000
0.067500 0.052500 0.047500 -100.000000 0.000000 -0.000000
0.067500 0.057500 0.047500 -100.000000 -100.000000 100.000000
0.067500 0.062500 0.047500 -100.000000 -100.000000 0.000000
0.067500 0.037500 0.052500 -100.000000 100.000000 -0.000000
0.067500 0.042500 0.052500 -100.000000 100.000000 -100.000000
0.067500 0.047500 0.052500 -100.000000 0.000000 0.000000
0.067500 0.052500 0.052500 -100.000000 0.000000 0.000000
0.067500 0.057500 0.052500 -100.000000 -100.000000 -100.000000
0.067500 0.062500 0.052500 -100.000000 -100.000000 -0.000000
0.067500 0.037500 0.057500 -100.000000 -0.000000 0.000000
0.067500 0.042500 0.057500 -100.000000 100.000000 -100.000000
0.067500 0.047500 0.057500 -100.000000 100.000000 -100.000000
0.067500 0.052500 0.057500 -100.000000 -100.000000 -100.000000
0.067500 0.057500 0.057500 -100.000000 -100.000000 -100.000000
0.067500 0.062500 0.057500 -100.000000 0.000000 0.000000
0.067500 0.042500 0.062500 -100.000000 0.000000 -0.000000
0.067500 0.047500 0.062500 -100.000000 -0.000000 -100.000000
0.067500 0.052500 0.062500 -100.000000 0.000000 -100.000000
0.067500 0.057500 0.062500 -100.000000 -0.000000 0.000000
0.072500 0.047500 0.042500 -100.000000 0.000000 0.000000
0.072500 0.052500 0.042500 -100.000000 -0.000000 0.000000
0.072500 0.042500 0.047500 -100.000000 0.000000 -0.000000
0.072500 0.047500 0.047500 -100.000000 -0.000000 -0.000000
0.072500 0.052500 0.047500 -100.000000 0.000000 -0.000000
0.072500 0.057500 0.047500 -100.000000 -0.000000 0.000000
0.072500 0.042500 0.052500 -100.000000 0.000000 0.000000
0.072500 0.047500 0.052500 -100.000000 -0.000000 0.000000
0.072500 0.052500 0.052500 -100.000000 0.000000 0.000000
0.072500 0.057500 0.052500 -100.000000 0.000000 0.000000
0.072500 0.047500 0.057500 -100.000000 -0.000000 -0.000000
0.072500 0.052500 0.057500 -100.000000 -0.000000 -0.000000
